ply
format ascii 1.0
element vertex 1226
property float x
property float y
property float z
property uchar red
property uchar green
property uchar blue
end_header
27.053427 49.843616 32.834923 255 125 0
33.24321 48.42647 29.619692 255 125 0
33.051846 6.004607 29.151932 255 125 0
33.4357 44.022533 24.647932 255 125 0
34.288746 45.332382 29.84238 255 125 0
39.66247 43.87245 31.048758 255 125 0
32.96335 55.36741 37.069744 255 125 0
26.624273 30.080206 32.625755 255 125 0
26.573252 11.279918 36.848988 255 125 0
35.735195 40.154453 32.306873 255 125 0
28.301207 31.482243 32.470642 255 125 0
26.789513 9.236656 33.467583 255 125 0
34.967308 37.850655 32.880077 255 125 0
26.410921 22.27116 36.930744 255 125 0
34.385838 50.33329 37.30703 255 125 0
32.73059 31.833574 30.99181 255 125 0
38.935562 31.1257 31.021473 255 125 0
39.91354 28.987679 32.95063 255 125 0
35.748222 27.846003 30.458307 255 125 0
30.399832 22.218979 32.664814 255 125 0
26.062006 39.082867 40.09414 255 125 0
32.19849 47.345665 21.823814 255 125 0
38.868908 34.108936 31.434628 255 125 0
36.606297 16.268547 32.452023 255 125 0
28.83732 55.93098 37.548405 255 125 0
39.219185 19.248709 30.48355 255 125 0
24.351978 6.7692556 41.68332 255 125 0
34.242176 6.1695657 30.421082 255 125 0
32.072094 41.155003 32.57071 255 125 0
34.000908 55.686184 32.189884 255 125 0
34.869507 44.900322 26.898123 255 125 0
36.70972 40.371086 31.135115 255 125 0
24.499641 18.83312 41.58709 255 125 0
34.640434 24.57199 32.29249 255 125 0
33.658367 56.505154 38.27131 255 125 0
31.859999 6.4531856 30.344435 255 125 0
38.354916 48.821106 31.045187 255 125 0
26.050236 13.9097395 34.802845 255 125 0
34.895264 24.823427 30.051548 255 125 0
26.680561 32.69943 40.062126 255 125 0
27.862734 48.078533 32.47831 255 125 0
37.42224 28.00067 31.970217 255 125 0
36.66398 31.583708 31.751846 255 125 0
26.304142 10.641004 38.078106 255 125 0
25.370445 41.342815 40.671284 255 125 0
28.290712 24.417536 31.089718 255 125 0
33.262814 18.279709 32.07504 255 125 0
35.316998 33.716373 30.437641 255 125 0
33.14965 52.813194 37.138134 255 125 0
33.18479 9.454642 32.262287 255 125 0
37.197895 37.21559 32.46732 255 125 0
26.67705 10.418628 32.14082 255 125 0
28.344946 30.162712 32.9152 255 125 0
24.73156 23.611017 41.53497 255 125 0
26.013758 42.403183 40.987965 255 125 0
38.5866 37.99094 30.619175 255 125 0
27.929354 32.439507 32.667896 255 125 0
32.23891 24.783623 30.05488 255 125 0
33.05939 7.964702 22.68402 255 125 0
29.750303 35.678707 30.096584 255 125 0
33.75032 17.629875 30.393364 255 125 0
26.110104 32.843002 38.945423 255 125 0
24.472176 18.597387 42.440357 255 125 0
26.195147 22.376207 34.396225 255 125 0
31.30772 33.074215 31.35982 255 125 0
26.666277 27.486015 32.827198 255 125 0
28.150717 8.628137 29.57185 255 125 0
33.04121 42.482235 30.318499 255 125 0
30.477844 53.23468 37.131516 255 125 0
37.06492 52.24368 37.634087 255 125 0
33.019848 13.647351 32.09811 255 125 0
34.08453 4.8513846 30.962145 255 125 0
32.80144 55.308697 35.46394 255 125 0
25.253695 26.483868 42.8779 255 125 0
34.17238 17.272987 30.02171 255 125 0
38.27263 13.136279 30.62002 255 125 0
31.0875 45.107285 20.644249 255 125 0
38.617043 8.155414 31.639488 255 125 0
27.836653 35.77156 32.113 255 125 0
26.550291 20.713015 32.831455 255 125 0
34.94409 8.687136 32.15351 255 125 0
33.38891 35.61657 30.702007 255 125 0
34.322914 55.14158 34.20546 255 125 0
31.945778 29.060995 32.062687 255 125 0
39.680996 6.030606 30.354279 255 125 0
36.494083 32.129738 30.796711 255 125 0
34.962364 50.826107 30.52625 255 125 0
32.79685 7.314249 26.38224 255 125 0
32.234486 52.796345 30.045645 255 125 0
37.94163 27.429495 30.693707 255 125 0
32.999123 51.382915 37.87797 255 125 0
32.661686 6.6275244 31.282011 255 125 0
25.037672 14.693363 41.655155 255 125 0
26.285969 27.65878 33.733284 255 125 0
37.351498 24.398233 30.882877 255 125 0
26.90562 31.024612 36.919937 255 125 0
33.150585 27.56953 32.815365 255 125 0
37.565613 46.226727 31.347452 255 125 0
34.417843 44.583126 21.068516 255 125 0
34.30953 44.246624 31.33723 255 125 0
32.197636 14.710334 32.022026 255 125 0
26.669193 35.833664 40.97443 255 125 0
33.06081 56.729736 38.3689 255 125 0
24.502014 7.1222973 42.635414 255 125 0
27.71882 25.452667 30.13551 255 125 0
39.750797 29.417337 31.15535 255 125 0
25.162498 35.385914 40.984818 255 125 0
36.54396 39.18985 32.089096 255 125 0
29.42833 11.644136 32.853283 255 125 0
34.548157 52.76684 37.574924 255 125 0
26.635572 25.34725 39.061974 255 125 0
27.949545 48.765472 32.175583 255 125 0
26.379066 43.875546 34.046368 255 125 0
25.733885 44.127396 32.73306 255 125 0
31.12254 27.490011 32.62008 255 125 0
28.592459 53.07067 38.345047 255 125 0
39.836815 15.052588 31.281466 255 125 0
26.478569 16.922579 38.215332 255 125 0
29.984592 40.50588 31.006739 255 125 0
24.512873 8.27652 43.34534 255 125 0
26.683296 24.618391 34.478703 255 125 0
25.632433 37.440083 43.24927 255 125 0
26.89421 16.755947 39.58541 255 125 0
33.9233 46.16856 20.32639 255 125 0
24.278387 22.309753 43.34432 255 125 0
29.471182 16.262678 30.239023 255 125 0
34.310448 6.287592 29.122282 255 125 0
28.10796 32.44595 31.60772 255 125 0
31.13349 22.413715 32.89258 255 125 0
31.18186 22.98596 30.395674 255 125 0
28.813993 29.154469 32.608654 255 125 0
30.255035 27.794758 30.757744 255 125 0
27.200039 6.695996 30.414577 255 125 0
34.962982 33.297714 30.614534 255 125 0
30.241596 20.758326 30.59777 255 125 0
31.020899 31.553646 30.996239 255 125 0
34.850464 55.443935 34.196396 255 125 0
39.030384 22.740667 30.557934 255 125 0
25.442287 21.73647 33.474854 255 125 0
26.722916 46.058167 37.635666 255 125 0
27.250946 38.731934 30.42958 255 125 0
26.392817 29.150003 36.21835 255 125 0
32.649124 9.830942 31.418627 255 125 0
29.661638 6.491743 32.81276 255 125 0
24.47896 31.92197 41.265465 255 125 0
26.74552 23.118393 32.326054 255 125 0
26.314615 44.819828 37.753147 255 125 0
31.551178 49.916245 32.553318 255 125 0
33.44208 26.939362 30.871851 255 125 0
36.301407 45.573288 29.230455 255 125 0
33.485584 37.92511 31.118065 255 125 0
26.6507 36.70507 36.696426 255 125 0
31.441807 7.94368 30.121775 255 125 0
39.665684 6.2330384 29.693989 255 125 0
39.431072 38.41084 30.154097 255 125 0
31.334846 35.171715 32.272243 255 125 0
37.447697 43.570854 32.685493 255 125 0
34.261967 18.116232 30.07793 255 125 0
38.70969 49.217213 32.454266 255 125 0
26.291355 26.5218 34.569763 255 125 0
34.9667 45.47042 29.295069 255 125 0
37.68771 38.28059 32.91591 255 125 0
29.445158 12.3145485 31.708387 255 125 0
26.573578 8.996417 36.007496 255 125 0
25.785326 41.585865 33.843338 255 125 0
24.008356 45.661236 42.118916 255 125 0
34.15995 16.513336 31.978827 255 125 0
25.597685 20.348248 33.23188 255 125 0
37.33572 27.51564 31.423779 255 125 0
32.065857 29.419737 31.552042 255 125 0
37.57497 32.052574 30.650091 255 125 0
24.868807 20.129507 42.40411 255 125 0
36.50366 26.812496 30.847649 255 125 0
38.26033 18.715244 31.201815 255 125 0
26.936691 34.234863 33.438473 255 125 0
28.812637 57.31959 38.61452 255 125 0
26.11575 20.45246 36.5239 255 125 0
39.6012 37.168934 30.924786 255 125 0
32.750965 25.664646 32.51304 255 125 0
26.31911 29.285414 37.77137 255 125 0
28.644207 54.65563 37.899567 255 125 0
26.484276 38.39177 34.47061 255 125 0
26.179258 31.896206 33.62781 255 125 0
26.458069 33.015884 35.375374 255 125 0
31.945145 10.925465 31.764725 255 125 0
35.968384 28.998814 31.307997 255 125 0
29.196543 27.170143 31.663052 255 125 0
32.19856 23.76784 32.3902 255 125 0
25.800003 30.02668 43.897434 255 125 0
25.429018 3.1236987 39.152954 255 125 0
31.109587 9.539428 31.896683 255 125 0
30.312689 13.98547 30.271599 255 125 0
30.810465 28.387833 31.714678 255 125 0
38.601433 4.5998516 30.366192 255 125 0
25.853521 44.81406 43.137688 255 125 0
38.79142 3.5751889 32.73752 255 125 0
33.59198 56.116367 33.46897 255 125 0
28.809536 26.95666 30.03799 255 125 0
34.929203 27.374336 31.525578 255 125 0
39.767433 42.441425 30.735346 255 125 0
27.013968 13.900922 30.289566 255 125 0
37.827755 40.839935 31.055042 255 125 0
29.331028 52.07655 38.804497 255 125 0
33.278683 7.194749 21.448288 255 125 0
37.938873 36.222218 31.85691 255 125 0
27.536684 15.405836 31.055897 255 125 0
31.221792 45.640972 21.925013 255 125 0
37.92119 21.955685 31.21497 255 125 0
34.085983 51.86183 30.350212 255 125 0
29.852781 28.686705 32.582253 255 125 0
25.673391 36.504097 32.016384 255 125 0
37.96063 34.526905 31.293308 255 125 0
34.613632 7.3703732 27.243212 255 125 0
37.80718 20.490341 31.990381 255 125 0
33.586803 52.026237 38.06065 255 125 0
26.128584 27.363344 34.684883 255 125 0
37.757442 59.091293 37.995613 255 125 0
31.52728 38.77869 30.40135 255 125 0
33.086 31.155996 32.719166 255 125 0
37.291637 29.27915 32.37462 255 125 0
37.877422 18.445719 31.001532 255 125 0
34.41082 31.580137 30.153563 255 125 0
24.79688 18.927752 43.48777 255 125 0
33.44518 34.125526 30.778843 255 125 0
36.48226 11.918187 31.24613 255 125 0
33.07755 8.684729 29.048637 255 125 0
27.709215 27.994883 31.706615 255 125 0
34.742672 24.563732 32.770466 255 125 0
28.61162 25.35284 32.80283 255 125 0
29.484001 46.03252 29.426292 255 125 0
32.50077 34.09707 32.49475 255 125 0
26.835037 33.57452 40.92145 255 125 0
38.416794 56.886856 38.080086 255 125 0
35.467747 43.220562 21.25692 255 125 0
27.41137 31.21497 31.67321 255 125 0
37.616196 28.776457 30.599104 255 125 0
36.443474 45.476757 31.662804 255 125 0
33.803432 44.690613 22.474905 255 125 0
25.04818 32.850555 41.68342 255 125 0
37.40428 29.051874 30.278688 255 125 0
26.151573 25.573051 36.54119 255 125 0
26.07285 9.662075 35.175888 255 125 0
38.17463 28.822918 30.059546 255 125 0
25.026917 34.293957 40.350567 255 125 0
36.643456 15.207918 32.49631 255 125 0
36.167377 8.8240595 30.296875 255 125 0
34.55141 29.110006 30.761393 255 125 0
34.565872 3.3519685 31.419952 255 125 0
33.80006 56.499706 37.26876 255 125 0
31.25108 43.379513 32.12406 255 125 0
37.36627 6.079452 29.857561 255 125 0
24.39014 30.217934 42.060074 255 125 0
26.553469 25.500439 34.99697 255 125 0
25.102015 15.327346 32.863586 255 125 0
37.961662 14.785947 30.510931 255 125 0
38.726463 9.599799 31.156502 255 125 0
29.082186 46.24171 30.38316 255 125 0
39.651264 26.454996 32.04191 255 125 0
26.967478 15.6524 35.88117 255 125 0
36.908367 8.325361 30.99331 255 125 0
39.773212 17.235794 30.88068 255 125 0
28.893255 33.60443 30.17437 255 125 0
38.065422 7.54492 29.686344 255 125 0
38.71297 7.567738 29.029589 255 125 0
32.667896 17.583698 32.411625 255 125 0
32.196102 9.251384 30.812681 255 125 0
25.29331 32.600483 41.061638 255 125 0
34.846485 13.383736 30.530006 255 125 0
34.60512 16.672112 32.47963 255 125 0
29.195524 25.946339 30.122877 255 125 0
32.780586 38.35933 30.528278 255 125 0
39.70259 21.077188 32.286007 255 125 0
31.893976 4.8131223 31.71596 255 125 0
27.155285 24.057652 31.572994 255 125 0
33.359566 12.704013 31.529497 255 125 0
36.49511 32.817516 32.983383 255 125 0
32.01756 31.4253 30.877125 255 125 0
32.293118 55.434914 31.885777 255 125 0
31.671545 56.42369 38.20195 255 125 0
34.577213 46.96861 22.230902 255 125 0
28.652842 27.845835 30.140604 255 125 0
32.513844 45.09246 21.214874 255 125 0
26.06969 27.633581 32.129116 255 125 0
37.32195 49.31748 30.49084 255 125 0
33.13053 14.54037 31.451622 255 125 0
26.59962 12.827239 32.716526 255 125 0
25.27348 40.603497 32.029987 255 125 0
32.56554 49.280045 32.885006 255 125 0
38.199074 3.9175966 30.448832 255 125 0
26.452816 7.6451125 37.114048 255 125 0
31.276913 5.091559 20.989344 255 125 0
37.1142 10.623668 32.25563 255 125 0
28.397629 16.945982 31.260502 255 125 0
36.63439 46.00362 30.639156 255 125 0
26.638466 10.214935 34.893406 255 125 0
30.749794 28.43792 32.213566 255 125 0
33.74874 34.1686 32.34374 255 125 0
26.988937 41.025288 38.748196 255 125 0
25.636847 38.555046 42.534527 255 125 0
27.424768 17.516344 31.342747 255 125 0
36.683743 3.5675032 31.275038 255 125 0
30.654404 13.84622 30.30064 255 125 0
25.176052 21.876337 43.861305 255 125 0
36.60802 12.870349 31.064516 255 125 0
37.28288 44.004757 32.667023 255 125 0
25.633509 35.46191 42.332157 255 125 0
35.360165 55.380287 37.384743 255 125 0
30.050596 21.414864 30.938318 255 125 0
31.610003 59.78154 37.281075 255 125 0
35.758865 54.44859 38.395477 255 125 0
36.611397 12.099556 30.013762 255 125 0
30.653027 28.126467 30.788673 255 125 0
32.949276 7.58586 27.497877 255 125 0
30.877825 54.2005 38.497353 255 125 0
38.528828 9.538082 32.188698 255 125 0
26.77475 49.95144 39.016644 255 125 0
25.889366 22.497997 33.66387 255 125 0
24.81362 33.192524 43.639767 255 125 0
36.79887 3.7284305 32.604843 255 125 0
33.041508 19.864315 31.224968 255 125 0
25.771898 29.575829 40.63428 255 125 0
32.86754 22.711914 30.313568 255 125 0
32.901974 11.804882 31.725422 255 125 0
28.95675 40.12512 31.658924 255 125 0
35.48711 8.58527 30.476429 255 125 0
25.793747 20.742428 32.827496 255 125 0
31.279467 9.820156 31.6733 255 125 0
33.89604 52.332355 30.406721 255 125 0
32.26438 49.02599 32.0561 255 125 0
32.314133 7.9295683 26.058128 255 125 0
33.046623 45.610836 27.099983 255 125 0
26.270004 34.051266 35.99512 255 125 0
27.186893 25.362251 32.0014 255 125 0
32.01856 6.4533553 23.848412 255 125 0
28.028511 47.10062 32.744133 255 125 0
39.993847 16.587975 32.926838 255 125 0
39.560265 42.544254 31.744144 255 125 0
34.12849 7.027132 21.154451 255 125 0
28.167284 20.312044 32.62689 255 125 0
25.699821 7.2900944 41.75412 255 125 0
26.689926 7.5695343 40.928574 255 125 0
26.421207 19.9606 35.104237 255 125 0
30.147491 9.903265 31.387926 255 125 0
25.896824 42.31639 33.647694 255 125 0
29.19858 25.904264 30.9549 255 125 0
28.832773 45.492428 30.908918 255 125 0
32.86949 47.515015 32.34313 255 125 0
26.198158 25.239498 40.41748 255 125 0
33.190903 50.18125 29.559822 255 125 0
25.472908 4.4858193 33.359386 255 125 0
34.26885 54.759293 30.83028 255 125 0
31.269642 43.616653 20.747658 255 125 0
32.368984 46.847076 27.910997 255 125 0
27.588745 35.57306 32.293457 255 125 0
38.363586 37.97948 30.928251 255 125 0
28.181517 8.626758 29.82582 255 125 0
24.886892 39.734447 42.72917 255 125 0
24.222317 18.352434 41.052254 255 125 0
32.970085 44.97358 26.51592 255 125 0
25.461252 36.786793 43.359653 255 125 0
26.710876 41.288513 33.319923 255 125 0
33.483047 16.615993 32.088917 255 125 0
35.985767 8.291891 30.294619 255 125 0
26.128788 18.15342 39.150005 255 125 0
32.689648 45.9253 22.70775 255 125 0
27.451252 38.343426 32.387253 255 125 0
32.804348 40.778336 31.030424 255 125 0
33.534134 19.145895 32.014347 255 125 0
33.8934 9.9974165 21.20623 255 125 0
37.624607 59.839607 38.964787 255 125 0
26.262104 40.970615 33.1956 255 125 0
26.20431 22.329657 33.300537 255 125 0
32.99801 13.577743 32.540066 255 125 0
39.265205 4.2633677 31.178528 255 125 0
26.399843 36.110706 40.1126 255 125 0
30.447132 25.786102 32.454304 255 125 0
38.526585 18.413126 32.62352 255 125 0
38.46501 24.19699 30.507885 255 125 0
28.152582 32.307007 31.666595 255 125 0
39.22434 28.007565 30.35402 255 125 0
31.068542 23.91629 30.722357 255 125 0
30.30064 54.374527 38.97086 255 125 0
35.215393 38.022682 32.085938 255 125 0
31.263803 37.72509 32.40931 255 125 0
32.61543 44.21468 20.079655 255 125 0
30.99497 18.77513 30.933962 255 125 0
27.926422 8.580245 31.442144 255 125 0
39.314873 38.95185 30.369661 255 125 0
38.432518 6.426589 31.078997 255 125 0
24.574774 9.63171 41.733986 255 125 0
27.407267 29.20931 31.910513 255 125 0
30.026657 16.612974 31.792461 255 125 0
25.50183 48.7264 37.727993 255 125 0
30.00238 28.620955 31.859514 255 125 0
33.586708 6.3284316 31.16164 255 125 0
38.99912 7.7954817 29.726217 255 125 0
25.82582 18.394373 40.57367 255 125 0
33.709717 53.514324 37.66951 255 125 0
34.643703 5.160392 31.994667 255 125 0
39.33488 38.000435 30.37529 255 125 0
33.129612 8.899773 24.299574 255 125 0
38.148785 34.057644 30.387913 255 125 0
39.596127 6.575759 32.344093 255 125 0
38.52037 32.826874 32.02655 255 125 0
27.642786 19.053022 31.250473 255 125 0
26.458605 38.38825 37.22055 255 125 0
29.592093 12.884444 30.041012 255 125 0
26.583902 29.983582 36.75284 255 125 0
28.359198 12.370846 32.315605 255 125 0
27.421274 30.802505 31.006329 255 125 0
37.826725 15.427231 30.298607 255 125 0
24.52624 30.568054 41.321537 255 125 0
26.63449 31.696201 35.00268 255 125 0
32.245853 6.79841 21.231342 255 125 0
32.972065 56.61771 35.511574 255 125 0
25.33545 11.949094 40.470634 255 125 0
36.581947 44.425667 29.285648 255 125 0
36.808155 24.067314 30.795937 255 125 0
39.925888 28.194263 30.046942 255 125 0
39.254288 33.345093 30.864805 255 125 0
34.596306 46.781567 22.20408 255 125 0
28.199778 44.103672 32.320564 255 125 0
25.549757 29.06042 32.718422 255 125 0
25.20682 44.0519 42.566574 255 125 0
31.19525 7.473357 31.567556 255 125 0
26.402712 34.7001 38.618378 255 125 0
28.408848 57.89735 37.608154 255 125 0
26.818743 16.264294 38.315037 255 125 0
32.05716 27.128128 31.422474 255 125 0
35.95955 14.995277 32.631416 255 125 0
35.207653 45.435055 30.518684 255 125 0
33.104008 31.9868 31.799442 255 125 0
33.27086 8.949652 24.080496 255 125 0
29.475723 27.676819 32.362278 255 125 0
27.85722 4.678989 30.480503 255 125 0
37.021606 38.95574 32.14903 255 125 0
25.03756 49.26839 34.418087 255 125 0
32.58829 51.784134 38.54447 255 125 0
30.70445 29.26567 32.159878 255 125 0
32.923363 47.943264 29.019665 255 125 0
28.925972 42.496117 30.073929 255 125 0
35.03968 6.9440236 30.967733 255 125 0
34.85285 23.438583 31.71698 255 125 0
31.028797 31.157305 31.367622 255 125 0
33.639637 7.2430167 30.819025 255 125 0
28.759586 42.85555 31.71897 255 125 0
34.45345 21.775143 32.97245 255 125 0
39.106792 5.860323 32.899418 255 125 0
31.34435 44.273697 31.080769 255 125 0
36.264927 10.597369 30.212944 255 125 0
33.906723 35.586456 31.683302 255 125 0
36.36094 24.474373 32.125248 255 125 0
26.237244 35.68509 37.861855 255 125 0
36.216084 30.254797 30.752026 255 125 0
34.369762 42.72122 32.673584 255 125 0
34.45015 55.906105 30.256483 255 125 0
25.378523 4.608027 41.76868 255 125 0
34.73113 45.46997 22.051777 255 125 0
26.453623 30.807959 40.34127 255 125 0
35.945854 6.6129103 29.194513 255 125 0
27.383457 5.909533 32.756462 255 125 0
28.651812 38.92067 32.50962 255 125 0
30.102219 36.98181 31.066448 255 125 0
32.13513 56.51453 31.606768 255 125 0
28.051777 4.984239 30.546762 255 125 0
27.768429 11.006053 31.265005 255 125 0
24.73581 11.23291 43.87249 255 125 0
32.9316 42.875404 31.47575 255 125 0
31.594526 31.014387 32.815132 255 125 0
32.25908 34.684284 30.337322 255 125 0
27.479174 47.839035 30.192192 255 125 0
36.9554 10.590652 32.966595 255 125 0
31.550785 44.488476 30.214573 255 125 0
33.481457 44.07113 31.040348 255 125 0
36.628056 35.916935 31.153202 255 125 0
34.550846 52.19523 38.02438 255 125 0
37.648094 13.334247 30.286303 255 125 0
30.354885 9.090473 32.351425 255 125 0
32.93158 8.202632 27.668764 255 125 0
31.60487 35.740616 30.499445 255 125 0
26.292263 7.6861405 38.452072 255 125 0
31.84943 6.104717 30.207653 255 125 0
31.207184 55.108467 37.1662 255 125 0
26.355595 33.22604 37.378075 255 125 0
33.71309 42.818756 31.420841 255 125 0
29.256708 44.572037 31.597193 255 125 0
29.511627 17.367733 30.191095 255 125 0
32.55849 8.436525 23.837818 255 125 0
32.448517 27.045376 31.404984 255 125 0
33.514046 48.62024 30.395462 255 125 0
35.56672 26.33084 30.064623 255 125 0
25.236607 40.902466 42.37056 255 125 0
35.50991 33.96681 32.35463 255 125 0
34.291786 45.06488 29.005356 255 125 0
31.224289 36.08594 31.598925 255 125 0
25.891756 14.256132 32.846527 255 125 0
31.328936 14.186572 31.62592 255 125 0
38.052708 20.657455 31.248028 255 125 0
28.10171 29.591524 32.62508 255 125 0
31.06507 3.7544532 31.903015 255 125 0
33.548897 42.79518 31.768429 255 125 0
29.317757 25.389158 32.781376 255 125 0
25.070158 24.645998 33.530857 255 125 0
38.350563 3.5116897 31.185461 255 125 0
32.111153 6.65154 29.857384 255 125 0
26.953234 34.410305 32.89958 255 125 0
25.367542 15.47167 42.389896 255 125 0
35.74431 13.334664 30.263638 255 125 0
24.426783 13.7536335 42.138397 255 125 0
25.549288 12.12017 33.485004 255 125 0
26.67349 14.942106 33.140152 255 125 0
37.36073 42.04922 32.233845 255 125 0
36.356987 49.951515 32.140602 255 125 0
26.94503 29.591156 37.41265 255 125 0
35.22649 34.775616 30.931927 255 125 0
26.518858 12.275462 36.29316 255 125 0
25.483707 10.799036 43.283974 255 125 0
30.38777 5.4631104 30.314056 255 125 0
36.78364 42.86598 30.1302 255 125 0
35.35048 15.744569 31.457071 255 125 0
33.38748 30.538538 32.003185 255 125 0
31.037647 27.872467 30.986366 255 125 0
24.449549 47.46041 42.37795 255 125 0
33.041725 30.48596 31.353188 255 125 0
25.100399 16.864017 41.126007 255 125 0
38.61443 15.581427 32.736908 255 125 0
32.231167 49.692158 30.843271 255 125 0
38.934128 9.443736 30.35853 255 125 0
38.96839 24.8161 30.906666 255 125 0
24.94142 18.642843 43.044853 255 125 0
26.55171 7.895418 29.410305 255 125 0
36.26819 27.35329 32.92342 255 125 0
36.714928 23.199154 31.670397 255 125 0
35.718723 29.348787 32.28027 255 125 0
32.38363 22.620953 31.28496 255 125 0
26.253485 13.090184 33.113716 255 125 0
28.190693 36.718884 30.892458 255 125 0
26.104252 48.323933 36.86895 255 125 0
33.31934 56.54511 31.870329 255 125 0
33.117424 56.154503 36.285915 255 125 0
25.306004 43.006958 40.804714 255 125 0
34.0143 4.041825 30.50505 255 125 0
36.192448 32.414295 31.2582 255 125 0
28.549204 15.611009 32.497932 255 125 0
26.726585 33.40753 40.33368 255 125 0
26.072794 11.428928 38.544632 255 125 0
39.979645 55.8877 37.471397 255 125 0
34.380356 42.31194 30.719522 255 125 0
30.256117 44.653313 30.622007 255 125 0
32.77527 46.46935 24.159874 255 125 0
37.042164 22.77763 30.130592 255 125 0
29.352999 49.053635 32.50308 255 125 0
25.758884 8.807818 33.113167 255 125 0
38.865154 18.504831 30.689068 255 125 0
37.453003 42.038124 31.7929 255 125 0
31.437038 7.388814 30.189974 255 125 0
24.608604 25.840837 41.581623 255 125 0
26.614063 7.935421 30.331823 255 125 0
34.113586 6.03643 31.299314 255 125 0
25.854107 34.147614 40.19625 255 125 0
30.927187 27.469028 31.423367 255 125 0
27.09587 47.366817 30.893852 255 125 0
32.77123 45.39572 25.580042 255 125 0
31.12121 30.438719 32.014626 255 125 0
26.411182 27.539406 38.962223 255 125 0
31.565784 21.71374 32.171974 255 125 0
36.502865 9.428143 32.745895 255 125 0
26.130213 22.072847 33.047287 255 125 0
29.356844 42.85158 32.927883 255 125 0
25.867962 31.765657 41.25378 255 125 0
26.470407 8.298315 38.193447 255 125 0
25.892637 33.632637 40.570053 255 125 0
27.421303 6.675738 31.345629 255 125 0
27.141771 24.327854 30.015398 255 125 0
33.243053 6.692457 21.209808 255 125 0
33.42072 40.010876 32.24394 255 125 0
29.414795 42.361507 32.171272 255 125 0
31.609793 11.712017 32.280197 255 125 0
32.152924 44.464405 22.953667 255 125 0
37.419464 44.43172 29.158155 255 125 0
26.590796 8.358922 29.15193 255 125 0
35.84246 8.016418 30.574251 255 125 0
38.33029 38.88595 30.904741 255 125 0
27.98116 7.2130146 30.865944 255 125 0
36.589237 16.274622 30.27492 255 125 0
34.78389 6.3636084 26.464668 255 125 0
32.735313 47.659473 30.301575 255 125 0
29.984634 23.460596 30.730467 255 125 0
38.863674 11.014795 32.233524 255 125 0
35.401066 6.609886 32.999683 255 125 0
32.13105 44.150124 32.6842 255 125 0
31.83706 11.597325 30.382025 255 125 0
37.69089 16.659346 30.210535 255 125 0
29.324976 52.49017 38.40412 255 125 0
29.203524 3.0981193 30.628902 255 125 0
32.72265 50.384148 37.742176 255 125 0
37.59229 45.86135 30.641874 255 125 0
27.58987 18.953445 31.415604 255 125 0
27.262451 17.62239 32.447216 255 125 0
26.919838 47.347404 39.756573 255 125 0
29.636347 46.966476 30.537119 255 125 0
25.071009 10.956989 40.70806 255 125 0
26.495388 18.566315 35.19661 255 125 0
25.8912 33.56882 32.292423 255 125 0
26.655294 26.619152 32.879986 255 125 0
36.03302 5.855584 32.19304 255 125 0
26.871384 19.332314 34.811615 255 125 0
34.041885 27.716667 31.087317 255 125 0
37.8042 23.591248 32.358273 255 125 0
39.823982 32.368866 30.008522 255 125 0
28.240051 37.54712 30.309372 255 125 0
34.405914 21.184422 32.885902 255 125 0
26.96713 21.598621 39.910667 255 125 0
34.80312 14.8961115 30.35202 255 125 0
25.217838 39.975266 41.53725 255 125 0
34.427086 39.675404 30.851383 255 125 0
26.55672 34.499744 37.16026 255 125 0
26.635231 37.99513 38.753487 255 125 0
27.15135 7.087006 31.199888 255 125 0
32.039707 53.626244 30.476168 255 125 0
25.088371 4.189442 39.224888 255 125 0
26.992603 30.479023 37.391754 255 125 0
26.103045 13.425059 38.542324 255 125 0
26.897432 40.9755 35.70424 255 125 0
29.26329 10.441359 30.956373 255 125 0
24.325592 43.285957 42.242874 255 125 0
32.305122 53.723415 37.25495 255 125 0
25.919703 31.708302 41.519157 255 125 0
32.21979 34.557827 32.10944 255 125 0
26.491205 7.0205054 38.67711 255 125 0
38.477978 27.004381 30.783342 255 125 0
24.403574 45.793716 41.532776 255 125 0
28.873098 33.496742 32.41357 255 125 0
35.338932 56.462727 37.684223 255 125 0
38.264927 53.661575 38.632935 255 125 0
36.787678 25.345524 32.388355 255 125 0
37.05525 36.650024 31.254957 255 125 0
33.25498 29.637722 31.96897 255 125 0
34.162186 10.844707 30.251839 255 125 0
28.47768 52.286594 37.65613 255 125 0
27.334677 38.628376 32.161556 255 125 0
29.648005 30.871906 31.241566 255 125 0
24.15998 9.122335 42.89603 255 125 0
25.515205 4.950205 40.542973 255 125 0
29.782932 38.05105 32.82891 255 125 0
37.107624 15.828644 30.030846 255 125 0
30.622429 39.58986 31.87315 255 125 0
26.499954 5.8801107 36.547382 255 125 0
25.328974 45.90213 41.106445 255 125 0
36.445286 32.83559 31.890898 255 125 0
34.065113 6.659613 25.60517 255 125 0
26.084682 42.76486 33.937523 255 125 0
31.754507 43.00168 32.137802 255 125 0
26.685568 22.58928 39.151794 255 125 0
26.151417 29.456573 38.19888 255 125 0
25.644798 36.6396 43.502487 255 125 0
36.402916 23.878714 30.880135 255 125 0
39.16863 38.597416 30.754482 255 125 0
25.392838 24.860546 42.86445 255 125 0
34.805275 46.853558 22.32363 255 125 0
31.89443 42.69879 30.588747 255 125 0
26.986233 27.144753 39.43905 255 125 0
27.379251 3.2995977 30.737888 255 125 0
33.113358 12.338516 32.106438 255 125 0
25.930693 17.645979 32.30108 255 125 0
25.30171 40.782646 42.47768 255 125 0
24.939455 19.915106 41.356167 255 125 0
34.670918 54.439888 30.58618 255 125 0
39.301277 45.39152 31.198576 255 125 0
36.779514 56.261436 38.620003 255 125 0
26.083221 15.641031 34.854813 255 125 0
26.391804 40.39123 32.965782 255 125 0
26.200752 19.160645 39.121685 255 125 0
39.97123 43.29837 31.605679 255 125 0
28.09966 6.8403983 29.576843 255 125 0
31.254963 30.646502 32.445396 255 125 0
28.088213 28.251076 30.260834 255 125 0
30.848703 31.491932 31.452793 255 125 0
26.736094 35.52583 34.99888 255 125 0
37.205967 46.22941 32.879425 255 125 0
32.398785 53.5595 30.500471 255 125 0
31.520414 34.232338 32.95564 255 125 0
25.425003 40.549923 40.032715 255 125 0
36.434914 7.1538186 32.038353 255 125 0
38.594448 18.532724 32.127422 255 125 0
36.83534 16.426113 32.2578 255 125 0
30.392893 5.4277534 31.989233 255 125 0
28.259918 21.009365 30.91827 255 125 0
26.737179 8.397178 31.891924 255 125 0
26.284714 25.845425 34.612957 255 125 0
35.42361 43.084106 30.850784 255 125 0
33.340267 54.573296 29.808462 255 125 0
36.88359 11.566819 32.56184 255 125 0
33.74154 59.40093 38.18382 255 125 0
39.385704 39.265358 32.238655 255 125 0
33.3137 60.214645 37.336716 255 125 0
33.09008 15.362128 31.828142 255 125 0
24.762138 36.866367 41.288986 255 125 0
24.963327 43.307186 41.345142 255 125 0
33.85663 23.402094 32.675716 255 125 0
29.572256 29.889172 32.313755 255 125 0
31.568628 25.209818 32.33084 255 125 0
28.227705 27.129234 32.364788 255 125 0
26.387777 17.651901 37.762466 255 125 0
26.815575 11.357252 32.93928 255 125 0
24.71084 40.933395 41.26583 255 125 0
37.353985 8.681812 31.95352 255 125 0
31.778812 5.9161863 32.997696 255 125 0
36.04657 6.739679 29.641003 255 125 0
27.533768 22.085506 30.821943 255 125 0
26.68257 27.796818 32.192253 255 125 0
29.677153 33.953346 30.50823 255 125 0
39.80753 21.187515 30.914124 255 125 0
34.765747 16.912611 31.483051 255 125 0
25.957657 17.75179 42.820435 255 125 0
39.582996 25.431305 30.19891 255 125 0
35.34853 27.90908 31.574965 255 125 0
33.21264 22.363607 30.346502 255 125 0
27.823523 39.218323 32.919678 255 125 0
25.967112 37.394848 40.044197 255 125 0
32.132866 44.121387 25.430565 255 125 0
34.65594 5.588762 20.04015 255 125 0
27.062004 45.194572 29.897654 255 125 0
27.196075 32.021065 31.423895 255 125 0
35.62902 56.043255 37.51539 255 125 0
24.900074 38.444088 43.884125 255 125 0
36.142254 21.411444 30.150522 255 125 0
35.276367 23.402845 32.499863 255 125 0
30.228218 13.051634 31.0221 255 125 0
39.110554 13.249171 31.127483 255 125 0
27.468172 31.597479 32.36166 255 125 0
26.47192 26.540588 38.477875 255 125 0
36.546623 21.391518 32.905933 255 125 0
25.295118 25.057821 33.079914 255 125 0
31.522661 15.752836 30.055637 255 125 0
31.611944 54.072163 37.548027 255 125 0
27.11941 16.044704 30.87956 255 125 0
27.904865 14.768218 31.837078 255 125 0
28.79055 39.435375 30.810415 255 125 0
35.592583 44.90799 32.23194 255 125 0
35.189476 46.171387 29.190474 255 125 0
37.83246 15.665761 32.391506 255 125 0
31.256624 23.644707 31.176067 255 125 0
32.000057 8.431648 29.56911 255 125 0
35.887074 24.554396 32.611668 255 125 0
32.6222 53.28238 37.21061 255 125 0
24.483053 24.171047 42.859673 255 125 0
28.843172 40.639603 32.20403 255 125 0
26.922337 41.940147 40.953712 255 125 0
25.353096 8.661079 41.637596 255 125 0
36.744053 41.901882 32.30516 255 125 0
25.313747 3.0628984 41.743416 255 125 0
31.95504 47.466663 30.756418 255 125 0
30.712908 49.396667 30.101292 255 125 0
31.400759 11.185522 32.67032 255 125 0
33.609264 8.435319 23.18016 255 125 0
38.4871 34.960415 31.305569 255 125 0
38.937344 26.815409 30.141518 255 125 0
36.72258 40.554 32.059063 255 125 0
30.43807 36.440342 30.995481 255 125 0
35.70865 34.540974 31.42032 255 125 0
26.174723 27.399511 39.235977 255 125 0
32.468143 46.12375 24.197586 255 125 0
25.706264 5.910234 41.880516 255 125 0
28.864109 5.1950593 32.1098 255 125 0
28.138683 12.704853 32.379395 255 125 0
24.689888 39.07454 43.47944 255 125 0
26.097975 33.83299 34.00426 255 125 0
26.908394 47.251324 39.090466 255 125 0
32.491 45.79491 29.962463 255 125 0
36.80404 53.0127 38.44291 255 125 0
25.716782 4.4522963 33.45547 255 125 0
26.667654 36.931454 36.206543 255 125 0
32.265156 11.207667 30.393797 255 125 0
32.4471 23.355902 30.310053 255 125 0
38.622345 19.242643 32.09289 255 125 0
38.005917 42.858887 30.15194 255 125 0
34.917618 7.940588 29.378073 255 125 0
30.442162 54.228973 37.075512 255 125 0
38.132748 40.767628 31.612482 255 125 0
24.708576 39.717667 43.860493 255 125 0
25.29891 17.743107 40.70216 255 125 0
33.1891 41.744034 31.700397 255 125 0
26.985664 13.952454 32.686447 255 125 0
37.58911 55.713673 37.941093 255 125 0
29.873146 56.816593 38.415794 255 125 0
32.49071 12.526135 30.51165 255 125 0
28.410704 58.534943 38.228348 255 125 0
34.641346 49.933285 30.502705 255 125 0
30.822159 39.487587 32.793484 255 125 0
26.467113 44.44501 34.562458 255 125 0
37.09781 29.676054 31.462929 255 125 0
38.341427 48.63264 32.958023 255 125 0
31.115768 12.514136 30.65975 255 125 0
31.164371 4.117053 32.18556 255 125 0
35.424824 45.784145 32.520214 255 125 0
34.82224 59.436413 38.201385 255 125 0
35.862377 23.41692 31.34639 255 125 0
34.201412 33.82513 32.719757 255 125 0
35.842216 46.16598 20.200083 255 125 0
33.918312 45.993332 26.244293 255 125 0
25.70186 20.141165 40.47542 255 125 0
33.787144 5.621337 21.298113 255 125 0
33.417213 16.610777 30.331604 255 125 0
25.301752 15.868052 40.863815 255 125 0
25.834953 42.801956 42.37319 255 125 0
33.664825 14.198223 32.727074 255 125 0
24.5777 26.53669 42.661003 255 125 0
28.034094 21.473093 30.946291 255 125 0
26.847527 23.438316 40.17983 255 125 0
29.926302 49.355106 32.716908 255 125 0
34.349575 60.436428 37.83292 255 125 0
29.069275 35.676594 31.748373 255 125 0
25.554323 22.02378 32.21065 255 125 0
32.92714 44.91275 24.680265 255 125 0
25.297756 9.706066 41.25117 255 125 0
38.054924 35.916744 30.418524 255 125 0
25.427067 41.456177 32.230038 255 125 0
26.409952 21.275126 40.713234 255 125 0
38.453934 21.078676 30.714058 255 125 0
26.316004 5.909408 36.294918 255 125 0
37.305756 6.5783744 32.677788 255 125 0
29.495481 44.96605 31.247383 255 125 0
24.528666 34.921177 43.483604 255 125 0
34.359333 41.73412 30.84774 255 125 0
25.314474 48.48633 43.996517 255 125 0
33.625954 15.7726345 30.613646 255 125 0
36.16494 17.602211 31.776093 255 125 0
25.225214 19.964514 42.23184 255 125 0
36.149914 56.705418 37.92949 255 125 0
28.59388 31.207844 30.573458 255 125 0
33.42021 56.06101 31.810326 255 125 0
34.07376 55.52531 29.70723 255 125 0
28.977026 18.818602 30.341404 255 125 0
24.902964 8.292812 42.594574 255 125 0
31.840425 18.854454 32.18871 255 125 0
38.941578 45.359634 29.52813 255 125 0
30.734726 33.887245 30.841644 255 125 0
34.211864 22.286295 32.009197 255 125 0
25.411804 42.383102 43.436184 255 125 0
26.81527 31.25785 37.083374 255 125 0
35.674328 45.5602 29.659792 255 125 0
36.61416 23.4612 32.903698 255 125 0
35.76861 47.276157 21.670069 255 125 0
35.32991 7.903538 30.998716 255 125 0
34.29751 7.9769173 22.502037 255 125 0
36.535686 9.833428 32.739067 255 125 0
35.629482 31.480488 32.522205 255 125 0
30.213257 7.81398 31.950035 255 125 0
26.955526 7.2784185 29.367823 255 125 0
25.160069 8.797726 42.841534 255 125 0
27.77937 12.7105 31.930542 255 125 0
34.48328 45.27577 24.900177 255 125 0
38.922646 16.026344 32.2274 255 125 0
32.941963 19.593145 31.743734 255 125 0
36.424374 19.918707 30.827553 255 125 0
32.57936 57.230385 38.578773 255 125 0
33.699265 56.88086 31.757736 255 125 0
33.449284 44.35505 23.103954 255 125 0
31.99676 37.92633 31.232597 255 125 0
32.308453 20.299356 30.71558 255 125 0
34.790424 44.08475 32.12872 255 125 0
31.100065 4.586995 31.5127 255 125 0
32.0023 25.25024 32.051483 255 125 0
34.08228 6.698105 25.721403 255 125 0
31.698732 32.508263 30.862015 255 125 0
26.74885 16.658102 32.022335 255 125 0
29.924778 42.637524 30.391823 255 125 0
26.502625 28.01024 34.514652 255 125 0
27.947775 23.291134 32.86532 255 125 0
28.367474 47.217033 32.164204 255 125 0
37.733063 9.832087 30.974842 255 125 0
30.49248 4.63927 30.09839 255 125 0
33.97626 31.648788 30.288054 255 125 0
35.185207 52.951904 37.32485 255 125 0
35.333954 52.003635 38.4212 255 125 0
35.860283 7.0340724 21.891531 255 125 0
39.02064 23.925514 30.850328 255 125 0
26.17076 41.670322 35.277294 255 125 0
35.587406 4.596058 32.27189 255 125 0
39.514088 29.83919 30.728151 255 125 0
38.627106 29.016867 32.63603 255 125 0
37.48753 55.92414 37.72692 255 125 0
35.179214 44.010925 30.123043 255 125 0
26.068089 10.447071 34.113297 255 125 0
26.281195 20.691961 40.26929 255 125 0
29.356054 9.008899 30.59922 255 125 0
35.735725 8.642247 21.957432 255 125 0
38.161964 56.239956 38.038063 255 125 0
26.086258 43.75285 33.045612 255 125 0
33.739006 23.176313 31.957443 255 125 0
25.140333 47.62208 42.56304 255 125 0
33.235817 26.26377 31.352516 255 125 0
38.445374 17.378994 31.146074 255 125 0
24.442682 16.942533 43.600105 255 125 0
36.61542 53.261692 37.175922 255 125 0
31.019432 8.423901 29.485216 255 125 0
26.653364 22.044376 35.252396 255 125 0
26.940697 30.453863 32.0478 255 125 0
37.348522 7.0155854 32.400192 255 125 0
33.24645 21.459288 31.526924 255 125 0
36.83514 53.98981 37.285667 255 125 0
27.601192 45.302265 30.804068 255 125 0
31.093407 40.285984 30.55193 255 125 0
33.02771 35.615948 31.91962 255 125 0
28.156895 46.64175 29.932484 255 125 0
28.978989 28.768915 31.552792 255 125 0
36.367626 24.950356 32.270058 255 125 0
31.365664 43.845215 30.893185 255 125 0
33.288155 52.069492 29.978703 255 125 0
38.4979 8.509456 30.466314 255 125 0
32.376705 28.007738 31.06438 255 125 0
32.661594 47.676167 31.928877 255 125 0
29.559439 48.025723 31.09526 255 125 0
38.118576 29.129658 31.036047 255 125 0
37.063725 23.679352 32.911514 255 125 0
25.5603 46.494648 30.613539 255 125 0
30.389214 23.729988 30.415367 255 125 0
25.40904 44.364147 42.073597 255 125 0
27.038715 19.151398 30.994923 255 125 0
30.935602 7.933976 32.254333 255 125 0
26.072414 4.574348 33.937347 255 125 0
32.6847 5.0308447 32.821053 255 125 0
39.621826 17.708752 32.578465 255 125 0
34.937508 56.642853 29.499367 255 125 0
37.100426 30.399282 31.262238 255 125 0
38.82479 43.80157 32.38076 255 125 0
31.320265 8.73399 20.247198 255 125 0
38.195393 14.101049 32.2707 255 125 0
36.114384 29.132206 30.840233 255 125 0
32.211937 42.887756 30.526363 255 125 0
24.618807 19.946331 41.076515 255 125 0
34.831963 22.650043 30.297487 255 125 0
27.489973 48.562195 30.257977 255 125 0
31.534842 33.99884 30.020376 255 125 0
38.315407 4.5917654 31.266068 255 125 0
31.4834 17.346558 31.30041 255 125 0
32.690628 45.45998 30.066788 255 125 0
35.939224 47.78734 21.156326 255 125 0
25.594673 8.624779 40.93835 255 125 0
36.62571 26.689003 31.305038 255 125 0
28.153028 12.712537 30.682482 255 125 0
39.05407 32.761024 32.932495 255 125 0
26.74334 8.247456 35.27548 255 125 0
33.156372 41.15917 32.509567 255 125 0
37.70918 15.793812 31.907856 255 125 0
29.016382 15.745183 32.040333 255 125 0
25.613007 16.805662 32.48569 255 125 0
24.400196 47.316437 41.918484 255 125 0
38.003483 39.392315 32.9306 255 125 0
31.837605 18.772877 30.316444 255 125 0
36.269993 9.253723 31.79746 255 125 0
25.004555 42.593052 32.50865 255 125 0
24.198927 36.280804 41.42462 255 125 0
29.094229 58.86622 37.440517 255 125 0
36.39118 10.9848175 32.05284 255 125 0
30.937906 58.054287 38.66274 255 125 0
31.061062 23.807545 32.559086 255 125 0
29.549618 33.44476 30.289963 255 125 0
39.55736 5.805127 32.249275 255 125 0
25.00688 41.298893 41.5156 255 125 0
26.008785 39.96991 37.038857 255 125 0
38.130924 10.729458 31.263638 255 125 0
38.01912 48.33307 31.494473 255 125 0
37.0475 8.479645 31.62367 255 125 0
31.504585 23.432884 30.399645 255 125 0
39.03755 19.72271 32.004974 255 125 0
27.17125 38.537243 32.399197 255 125 0
37.99467 37.817944 31.666166 255 125 0
27.016895 36.119904 32.71116 255 125 0
33.998108 51.877457 38.00389 255 125 0
29.038689 21.834589 30.972065 255 125 0
37.596905 14.455847 31.473482 255 125 0
34.30826 60.384914 38.61496 255 125 0
34.205338 45.357018 28.871685 255 125 0
30.022 45.547173 30.161982 255 125 0
25.111357 10.349746 43.406162 255 125 0
32.605915 60.33127 38.43284 255 125 0
25.068768 5.293436 35.28978 255 125 0
36.92747 25.338575 30.453844 255 125 0
30.945036 10.764071 31.647068 255 125 0
26.089363 5.3914385 40.12144 255 125 0
32.18375 14.272356 30.717302 255 125 0
36.89644 33.970078 31.707384 255 125 0
39.042267 42.169926 32.84076 255 125 0
33.007298 45.23655 21.317808 255 125 0
38.87612 46.857113 31.69731 255 125 0
26.804096 37.982555 39.557377 255 125 0
36.62704 45.17033 31.123468 255 125 0
27.606163 7.825633 29.626244 255 125 0
26.972746 29.433666 36.913246 255 125 0
38.90955 16.943043 31.37853 255 125 0
33.263557 59.156456 38.07269 255 125 0
29.284786 38.62168 32.484596 255 125 0
29.032028 19.446562 30.228043 255 125 0
26.332624 4.9942684 35.71145 255 125 0
39.489525 45.65072 32.785057 255 125 0
32.907166 50.694115 29.499622 255 125 0
28.976395 56.87462 37.44821 255 125 0
30.086292 27.890362 31.470356 255 125 0
25.298449 26.922274 40.37552 255 125 0
24.6965 28.573496 42.964073 255 125 0
33.66921 52.67441 37.78196 255 125 0
38.751602 4.6295843 30.99407 255 125 0
26.390797 24.466139 33.510204 255 125 0
31.457611 57.360535 37.39534 255 125 0
24.76194 6.932877 43.78412 255 125 0
37.90083 9.789074 32.467403 255 125 0
34.354996 7.640156 24.305527 255 125 0
33.513756 8.266883 23.082472 255 125 0
27.755865 42.120033 31.598167 255 125 0
33.041286 38.73564 32.281937 255 125 0
24.781973 13.389715 41.256065 255 125 0
30.045937 25.02727 32.926903 255 125 0
25.79671 17.674475 32.403133 255 125 0
24.953575 13.693077 42.95098 255 125 0
33.980534 12.065976 30.757767 255 125 0
29.639172 22.166262 30.631788 255 125 0
35.196938 35.60976 32.013474 255 125 0
32.49623 26.457956 31.19742 255 125 0
33.8378 45.92586 27.664555 255 125 0
25.366577 34.514416 32.5897 255 125 0
26.944504 32.784184 40.70632 255 125 0
31.40046 14.453972 30.52934 255 125 0
38.984116 47.395584 31.889006 255 125 0
25.43284 41.734097 41.66316 255 125 0
29.622417 3.2685254 32.412743 255 125 0
30.885305 6.848589 31.847483 255 125 0
34.514023 7.1667423 28.667324 255 125 0
34.90406 54.422367 29.552736 255 125 0
37.354534 41.960564 31.88711 255 125 0
25.847858 20.64452 41.44612 255 125 0
24.411367 39.35981 42.534355 255 125 0
32.621254 55.463223 38.310898 255 125 0
36.427048 28.806004 31.680504 255 125 0
36.938953 9.037267 30.58276 255 125 0
25.249966 39.326736 41.40131 255 125 0
27.437723 19.237944 31.549044 255 125 0
33.86639 46.62119 20.155113 255 125 0
27.304369 47.38824 31.576296 255 125 0
33.39861 52.760937 38.391922 255 125 0
35.525936 32.20844 31.109854 255 125 0
36.214306 45.923016 30.094532 255 125 0
25.135555 19.214844 32.394646 255 125 0
39.800053 34.39618 32.945206 255 125 0
39.776062 47.706715 31.60997 255 125 0
35.18627 23.747599 32.69297 255 125 0
35.20058 46.150852 32.378124 255 125 0
33.73018 7.721484 20.721735 255 125 0
25.649836 20.360548 32.40583 255 125 0
26.72887 31.772337 38.17704 255 125 0
24.780926 30.657448 43.54357 255 125 0
38.573475 30.426226 32.35124 255 125 0
25.785456 41.190186 41.08874 255 125 0
33.540085 55.426624 31.100178 255 125 0
33.206196 8.632088 23.747997 255 125 0
27.561083 47.956913 30.965223 255 125 0
33.70939 41.45518 31.828966 255 125 0
32.403805 41.887444 31.705078 255 125 0
35.582935 45.194805 20.339449 255 125 0
25.471933 20.535381 33.75474 255 125 0
26.827631 21.630663 36.788322 255 125 0
31.275137 20.676405 31.116997 255 125 0
35.122166 24.893879 32.344166 255 125 0
28.251642 16.841484 30.695906 255 125 0
38.478127 31.404047 30.080769 255 125 0
32.553886 44.913685 29.418272 255 125 0
35.577194 28.388447 31.07153 255 125 0
26.754772 14.587392 34.539745 255 125 0
37.711105 18.923977 31.377712 255 125 0
24.246378 45.74174 41.96352 255 125 0
25.755377 16.824404 43.11407 255 125 0
37.07817 34.2601 32.769955 255 125 0
25.426632 12.54903 42.252422 255 125 0
28.50778 34.163414 31.973185 255 125 0
37.68586 11.714172 30.115974 255 125 0
34.296837 37.28213 31.346605 255 125 0
31.134874 29.478329 30.809511 255 125 0
33.89061 46.274715 23.12299 255 125 0
33.535072 8.954621 25.848234 255 125 0
38.440273 20.509426 32.714695 255 125 0
25.560022 17.716274 41.929474 255 125 0
33.073376 34.717266 32.615692 255 125 0
26.76605 42.055782 39.533237 255 125 0
32.693684 53.367966 37.04353 255 125 0
25.641083 18.474344 40.799606 255 125 0
25.178696 39.27633 41.618103 255 125 0
34.24426 6.1197767 23.707035 255 125 0
26.304947 48.034836 34.357914 255 125 0
26.738165 14.26608 36.497345 255 125 0
34.84112 54.792297 30.90328 255 125 0
28.352875 31.415405 32.036682 255 125 0
29.473213 25.502033 32.846798 255 125 0
38.696926 39.856785 31.18214 255 125 0
25.162052 49.33906 34.631348 255 125 0
37.947186 34.912273 32.829952 255 125 0
28.601006 45.112873 29.930397 255 125 0
33.36328 44.100372 31.45344 255 125 0
39.575745 14.141448 30.989069 255 125 0
32.20114 53.551468 38.841507 255 125 0
27.600235 45.543518 32.87597 255 125 0
35.535915 30.985096 31.815132 255 125 0
35.138298 9.446186 32.36222 255 125 0
26.053766 4.6434665 35.081055 255 125 0
37.589222 20.229177 31.563112 255 125 0
35.372066 32.740704 31.599998 255 125 0
27.948128 13.980852 30.522152 255 125 0
25.833122 41.55798 43.382225 255 125 0
27.053104 45.572308 32.921974 255 125 0
28.050802 16.422195 31.45006 255 125 0
25.794909 34.882416 43.362694 255 125 0
30.187555 3.1010406 32.039238 255 125 0
28.62442 8.5615635 32.0699 255 125 0
26.847967 10.18581 35.016174 255 125 0
31.373312 32.75012 32.208664 255 125 0
25.915981 22.307035 43.67596 255 125 0
36.422512 42.148052 32.822502 255 125 0
32.053417 50.309494 38.852116 255 125 0
36.822823 51.99178 37.473133 255 125 0
32.479794 15.864766 32.321167 255 125 0
25.04359 7.8748555 29.819393 255 125 0
25.82294 48.144943 41.993977 255 125 0
35.872593 59.237328 38.637646 255 125 0
32.58442 45.691807 22.621107 255 125 0
34.96895 6.831823 24.618734 255 125 0
34.474014 59.864376 37.684032 255 125 0
35.754642 56.078457 38.867435 255 125 0
25.90984 19.986708 40.66898 255 125 0
28.321209 33.87976 31.676277 255 125 0
25.953571 5.2278414 33.92795 255 125 0
30.09513 18.900173 32.340446 255 125 0
24.972849 11.610606 42.980923 255 125 0
24.206882 47.92793 42.887657 255 125 0
37.235126 31.863527 32.503754 255 125 0
34.580498 46.45276 22.254614 255 125 0
37.68416 48.192547 30.273773 255 125 0
26.792793 46.084396 39.766945 255 125 0
30.744411 47.426064 32.846077 255 125 0
29.035526 15.354221 32.411392 255 125 0
26.225769 44.069542 31.308628 255 125 0
34.073765 53.49744 37.37014 255 125 0
34.33521 51.692623 29.265862 255 125 0
29.620745 11.865173 31.542755 255 125 0
26.292469 6.4222503 35.18987 255 125 0
29.609678 36.35259 31.675894 255 125 0
33.62116 17.764238 30.442877 255 125 0
27.427206 38.639557 31.316038 255 125 0
25.348248 34.279182 41.900875 255 125 0
28.101328 56.847626 38.2527 255 125 0
26.117733 16.777674 36.57073 255 125 0
32.099113 31.505642 30.761816 255 125 0
29.619211 38.43706 30.033278 255 125 0
31.123604 36.43794 32.07966 255 125 0
26.830141 28.65127 38.502472 255 125 0
34.92667 7.5023866 28.15952 255 125 0
33.30031 46.41281 24.046343 255 125 0
25.233994 32.77605 33.500507 255 125 0
29.270649 20.241608 30.118584 255 125 0
25.50239 40.825935 42.52394 255 125 0
29.845512 46.353592 29.849096 255 125 0
28.470695 46.244766 31.617098 255 125 0
33.181126 44.010723 28.847712 255 125 0
36.74113 34.663605 30.027243 255 125 0
34.015743 45.184536 28.054443 255 125 0
33.13621 45.076473 21.987375 255 125 0
31.761118 9.791829 20.41234 255 125 0
35.77672 41.29285 30.360674 255 125 0
37.22932 20.066063 32.152676 255 125 0
26.703304 40.2419 36.87683 255 125 0
26.470522 48.726505 35.60268 255 125 0
27.54126 11.801601 31.269785 255 125 0
36.598663 23.372387 32.488358 255 125 0
32.027496 33.70198 30.57601 255 125 0
25.376774 29.2901 43.473927 255 125 0
27.515747 44.652493 30.833836 255 125 0
33.757538 56.123795 34.624474 255 125 0
37.795166 42.78977 30.097473 255 125 0
25.027178 33.73124 40.7442 255 125 0
28.767538 45.859406 32.82275 255 125 0
28.11844 53.572403 38.557 255 125 0
26.961422 40.575592 38.86103 255 125 0
27.922056 38.804146 31.060455 255 125 0
32.98256 42.93298 30.784159 255 125 0
37.483646 37.30842 30.557432 255 125 0
25.05523 4.114261 42.78767 255 125 0
34.040894 41.510715 32.084885 255 125 0
26.448854 8.370398 38.950714 255 125 0
32.279594 47.687065 32.05009 255 125 0
37.73084 44.220543 30.257448 255 125 0
35.213043 32.798378 32.279995 255 125 0
31.252287 19.030521 32.224712 255 125 0
27.203411 13.168257 30.898865 255 125 0
25.62337 8.987031 42.138557 255 125 0
38.46789 26.36351 30.097492 255 125 0
26.930471 9.270414 37.89678 255 125 0
24.086185 45.23829 41.78693 255 125 0
30.716965 29.376268 31.530254 255 125 0
35.65829 43.487984 31.003798 255 125 0
33.175964 17.268862 31.329018 255 125 0
36.75893 52.12767 38.367214 255 125 0
33.678047 55.28113 38.827366 255 125 0
32.080063 22.650688 30.276556 255 125 0
24.17316 27.6548 43.602406 255 125 0
25.369673 35.73946 42.800728 255 125 0
36.045025 59.319214 38.363777 255 125 0
26.70914 7.0424743 40.903614 255 125 0
25.512466 32.580975 40.85572 255 125 0
26.979603 6.8299766 32.13316 255 125 0
26.285929 20.38138 37.188465 255 125 0
25.695679 13.572394 43.60768 255 125 0
29.813873 28.364399 32.71978 255 125 0
31.915184 13.899753 31.70896 255 125 0
30.289204 24.226488 31.68784 255 125 0
33.33314 45.660706 28.529827 255 125 0
39.0374 45.86969 30.860231 255 125 0
39.68015 23.41846 30.202534 255 125 0
39.702465 4.6693664 31.839642 255 125 0
35.476818 43.530807 21.919271 255 125 0
31.402222 37.198975 32.66693 255 125 0
36.848186 7.51173 29.40188 255 125 0
32.000946 25.976337 31.142372 255 125 0
32.30748 28.565584 30.939093 255 125 0
37.052536 4.4776855 30.731792 255 125 0
37.691307 36.35319 30.306429 255 125 0
25.278395 33.830154 40.240997 255 125 0
35.76374 32.240776 30.752934 255 125 0
